ply
format ascii 1.0
element vertex 58
property float x
property float y
property float z
property uchar red
property uchar green
property uchar blue
end_header
26.79640007019043 8.589007377624512 6.222795486450195 77 177 128
-6.976960182189941 -5.126134395599365 -16.35236167907715 11 243 128
-14.090166091918945 -7.1928606033325195 -19.093660354614258 3 251 128
29.031383514404297 13.997987747192383 13.507457733154297 98 156 128
29.575483322143555 16.349050521850586 13.993879318237305 100 154 128
-14.775025367736816 -7.463564395904541 -19.16554069519043 2 252 128
-15.483915328979492 -7.511577606201172 -19.636335372924805 1 253 128
21.475421905517578 -10.370267868041992 8.68911361694336 84 170 128
-29.188034057617188 -1.234399676322937 -16.922332763671875 9 245 128
-10.883902549743652 -4.923584938049316 -15.782547950744629 12 242 128
30.858543395996094 18.515098571777344 16.306753158569336 106 148 128
8.620441436767578 6.136918067932129 -0.5680050253868103 57 197 128
-16.209081649780273 -7.5199408531188965 -19.67090606689453 1 253 128
20.85780906677246 -14.65984058380127 9.056225776672363 85 169 128
-27.118228912353516 -2.045499801635742 -17.45138168334961 7 247 128
-8.554166793823242 27.180744171142578 14.494853019714355 101 153 128
-29.51106071472168 -0.41853222250938416 -16.191682815551758 11 243 128
-29.51106071472168 -0.41853222250938416 -16.191682815551758 11 243 128
-17.29254722595215 -7.358029365539551 -19.947566986083984 0 254 128
20.159652709960938 -19.069997787475586 9.922810554504395 88 166 128
20.159652709960938 -19.069997787475586 9.922810554504395 88 166 128
31.947500228881836 14.38008975982666 19.67032814025879 116 138 128
-29.770723342895508 -0.19600534439086914 -16.086185455322266 11 243 128
-29.770723342895508 -0.19600534439086914 -16.086185455322266 11 243 128
-29.8604679107666 -0.4229566752910614 -15.98271656036377 12 242 128
-30.02664566040039 -0.9810192584991455 -16.099267959594727 11 243 128
22.370365142822266 -16.963611602783203 14.34314250946045 101 153 128
35.59125518798828 14.603407859802246 25.62957000732422 134 120 128
31.47222328186035 -2.853729486465454 25.479736328125 133 121 128
28.957565307617188 -8.752310752868652 23.513063430786133 128 126 128
29.86627769470215 -8.918655395507812 25.172836303710938 132 122 128
28.0345516204834 -13.69862174987793 23.814640045166016 128 126 128
28.0345516204834 -13.69862174987793 23.814640045166016 128 126 128
30.209165573120117 -9.550081253051758 25.99112319946289 135 119 128
35.258941650390625 -2.1765365600585938 31.039215087890625 150 104 128
-25.78597640991211 -1.2947943210601807 -17.645273208618164 7 247 128
-21.101078033447266 -6.024972915649414 -19.57793426513672 1 253 128
-21.48000717163086 -6.083899974822998 -19.91840934753418 0 254 128
-20.88471794128418 -1.6085420846939087 -18.497356414794922 4 250 128
65.19187927246094 33.17390441894531 64.99234008789062 249 5 128
65.19187927246094 33.17390441894531 64.99234008789062 249 5 128
66.84164428710938 36.753116607666016 66.81254577636719 255 0 128
-33.15835952758789 7.491623401641846 -10.4408597946167 28 226 128
-23.377891540527344 -4.755691051483154 -18.833341598510742 3 251 128
-24.199787139892578 -2.8897013664245605 -18.44808006286621 4 250 128
-24.355485916137695 -3.867774486541748 -18.288738250732422 5 249 128
-11.31362247467041 -6.806797027587891 -18.061901092529297 6 248 128
25.96535873413086 -8.611895561218262 18.487571716308594 113 141 128
-19.1103458404541 -6.719151020050049 -19.544864654541016 1 253 128
-27.995685577392578 4.066677570343018 -15.574434280395508 13 241 128
-19.944576263427734 -6.547974586486816 -19.930574417114258 0 254 128
-29.926788330078125 2.775714874267578 -15.211270332336426 14 240 128
-29.926788330078125 2.775714874267578 -15.211270332336426 14 240 128
-29.926788330078125 2.775714874267578 -15.211270332336426 14 240 128
-19.187808990478516 -7.077362060546875 -20.13509750366211 0 255 128
-25.237220764160156 -3.0073702335357666 -17.954177856445312 6 248 128
34.23286056518555 17.285755157470703 22.418811798095703 124 130 128
-20.764911651611328 -1.9377166032791138 -18.57491683959961 4 250 128
